-133.822910  32.618670 -4441.000000
-133.819120  32.618410 -4406.000000
-133.814480  32.618630 -4308.000000
-133.810420  32.618630 -4281.000000
-133.806120  32.618830 -4292.000000
-133.802140  32.618750 -4243.000000
-133.797940  32.618640 -4100.000000
-133.793650  32.618670 -3890.000000
-133.789570  32.618790 -3857.000000
-133.785350  32.618820 -3903.000000
-133.781200  32.618680 -3876.000000
-133.777070  32.618730 -3830.000000
-133.772830  32.618810 -3832.000000
-133.768760  32.618730 -3833.000000
-133.764680  32.618700 -3820.000000
-133.760430  32.618790 -3812.000000
-133.756310  32.618700 -3787.000000
-133.752120  32.618840 -3772.000000
-133.747940  32.618950 -3787.000000
-133.743770  32.618920 -3817.000000
-133.739720  32.618720 -3899.000000
-133.735280  32.618770 -3992.000000
-133.731270  32.618800 -4031.000000
-133.727210  32.618660 -4116.000000
-133.722660  32.618980 -4185.000000
-133.718920  32.618650 -4248.000000
-133.714600  32.618910 -4281.000000
-133.711010  32.618970 -4335.000000
-133.707300  32.619970 -4374.000000
-133.870930  32.613090 -4488.000000
-133.869760  32.612690 -4500.000000
-133.863340  32.615580 -4554.000000
-133.859650  32.614870 -4562.000000
-133.856080  32.613080 -4576.000000
-133.851320  32.613070 -4454.000000
-133.847420  32.613240 -4411.000000
-133.843190  32.614310 -4438.000000
-133.839570  32.614490 -4454.000000
-133.835400  32.614610 -4476.000000
-133.831350  32.614340 -4472.000000
-133.826980  32.614680 -4478.000000
-133.822970  32.614530 -4474.000000
-133.818840  32.614530 -4394.000000
-133.814330  32.614600 -4228.000000
-133.810270  32.614670 -4271.000000
-133.806330  32.614600 -4240.000000
-133.802070  32.614570 -4093.000000
-133.797950  32.614470 -3905.000000
-133.793810  32.614540 -3847.000000
-133.789600  32.614580 -3845.000000
-133.785410  32.614600 -3876.000000
-133.781250  32.614550 -3818.000000
-133.777080  32.614580 -3826.000000
-133.772920  32.614620 -3818.000000
-133.768790  32.614600 -3797.000000
-133.764530  32.614580 -3795.000000
-133.760450  32.614640 -3776.000000
-133.756350  32.614600 -3780.000000
-133.752080  32.614680 -3831.000000
-133.747910  32.614540 -3888.000000
-133.743910  32.614540 -3907.000000
-133.739580  32.614610 -4001.000000
-133.735470  32.614520 -4050.000000
-133.731500  32.614930 -4063.000000
-133.727070  32.614620 -4187.000000
-133.722980  32.614800 -4250.000000
-133.718590  32.615000 -4308.000000
-133.715060  32.615750 -4354.000000
-133.711170  32.616340 -4365.000000
-133.879470  32.608800 -4477.000000
-133.877100  32.608920 -4509.000000
-133.872260  32.609440 -4469.000000
-133.869260  32.610530 -4546.000000
-133.864290  32.610770 -4567.000000
-133.859990  32.609940 -4570.000000
-133.855970  32.610300 -4540.000000
-133.851800  32.610060 -4450.000000
-133.847910  32.610430 -4423.000000
-133.843770  32.610400 -4424.000000
-133.839570  32.610460 -4478.000000
-133.835520  32.610250 -4499.000000
-133.831220  32.610470 -4509.000000
-133.826940  32.610460 -4515.000000
-133.822930  32.610470 -4491.000000
-133.818780  32.610390 -4417.000000
-133.814410  32.610270 -4242.000000
-133.810360  32.610540 -4246.000000
-133.806280  32.610390 -4120.000000
-133.801890  32.610440 -3896.000000
-133.797880  32.610400 -3864.000000
-133.793810  32.610390 -3851.000000
-133.789640  32.610410 -3852.000000
-133.785370  32.610420 -3842.000000
-133.781200  32.610500 -3816.000000
-133.777140  32.610430 -3835.000000
-133.772960  32.610390 -3804.000000
-133.768680  32.610540 -3779.000000
-133.764680  32.610510 -3777.000000
-133.760460  32.610500 -3807.000000
-133.756150  32.610340 -3888.000000
-133.752090  32.610480 -3917.000000
-133.747890  32.610620 -3924.000000
-133.743760  32.610510 -3992.000000
-133.739640  32.610340 -4089.000000
-133.735470  32.610280 -4145.000000
-133.731410  32.610230 -4215.000000
-133.727440  32.610770 -4260.000000
-133.724490  32.611980 -4287.000000
-133.718150  32.612290 -4355.000000
-133.880440  32.605790 -4580.000000
-133.876130  32.606870 -4520.000000
-133.872960  32.606620 -4529.000000
-133.869090  32.606340 -4580.000000
-133.864370  32.606200 -4578.000000
-133.860500  32.606000 -4575.000000
-133.856130  32.606340 -4519.000000
-133.852010  32.606260 -4469.000000
-133.847840  32.606270 -4464.000000
-133.843630  32.606280 -4445.000000
-133.839440  32.606360 -4511.000000
-133.835360  32.606250 -4541.000000
-133.831360  32.606200 -4540.000000
-133.827160  32.606170 -4531.000000
-133.822860  32.606280 -4492.000000
-133.818820  32.606270 -4406.000000
-133.814610  32.606210 -4290.000000
-133.810430  32.606190 -4123.000000
-133.806140  32.606290 -3913.000000
-133.802090  32.606190 -3868.000000
-133.797840  32.606330 -3854.000000
-133.793750  32.606230 -3879.000000
-133.789580  32.606200 -3866.000000
-133.785460  32.606280 -3821.000000
-133.781230  32.606230 -3840.000000
-133.777070  32.606260 -3844.000000
-133.772940  32.606420 -3814.000000
-133.768760  32.606270 -3840.000000
-133.764540  32.606370 -3858.000000
-133.760290  32.606210 -3928.000000
-133.756410  32.606240 -3937.000000
-133.751930  32.606260 -3997.000000
-133.748060  32.606260 -4009.000000
-133.743580  32.606250 -4115.000000
-133.739690  32.606420 -4170.000000
-133.735450  32.606610 -4208.000000
-133.731690  32.606730 -4224.000000
-133.728110  32.607810 -4242.000000
-133.883380  32.604120 -4617.000000
-133.880980  32.601440 -4586.000000
-133.877320  32.601330 -4568.000000
-133.872130  32.601790 -4544.000000
-133.868680  32.602160 -4574.000000
-133.864680  32.602000 -4614.000000
-133.860260  32.602070 -4608.000000
-133.856360  32.601950 -4561.000000
-133.852060  32.602290 -4536.000000
-133.847810  32.602130 -4501.000000
-133.843680  32.602080 -4491.000000
-133.839580  32.602100 -4553.000000
-133.835360  32.602140 -4562.000000
-133.831290  32.602040 -4558.000000
-133.827130  32.602030 -4545.000000
-133.822960  32.602020 -4473.000000
-133.818690  32.602150 -4318.000000
-133.814500  32.601990 -4155.000000
-133.810450  32.602050 -3937.000000
-133.806260  32.602110 -3885.000000
-133.802070  32.602160 -3904.000000
-133.798060  32.602100 -3918.000000
-133.793780  32.602130 -3932.000000
-133.789680  32.602090 -3896.000000
-133.785520  32.602070 -3861.000000
-133.781350  32.602120 -3871.000000
-133.777160  32.602270 -3877.000000
-133.772860  32.602010 -3958.000000
-133.768700  32.602110 -3966.000000
-133.764530  32.602130 -3958.000000
-133.760440  32.602120 -3985.000000
-133.756200  32.602050 -4018.000000
-133.752330  32.602130 -4042.000000
-133.748430  32.602510 -4108.000000
-133.743570  32.602760 -4197.000000
-133.740380  32.603050 -4230.000000
-133.734610  32.603270 -4270.000000
-133.732530  32.603310 -4257.000000
-133.898500  32.596470 -4671.000000
-133.894380  32.596430 -4642.000000
-133.890180  32.596100 -4630.000000
-133.884640  32.596910 -4603.000000
-133.881130  32.597680 -4579.000000
-133.877090  32.597760 -4509.000000
-133.872890  32.597840 -4537.000000
-133.868820  32.597950 -4604.000000
-133.864540  32.597910 -4629.000000
-133.860430  32.597950 -4637.000000
-133.856260  32.598040 -4639.000000
-133.852120  32.597930 -4623.000000
-133.847790  32.597880 -4552.000000
-133.843660  32.597930 -4552.000000
-133.839580  32.597970 -4586.000000
-133.835470  32.597890 -4579.000000
-133.831280  32.597870 -4565.000000
-133.827170  32.597860 -4521.000000
-133.822890  32.597940 -4397.000000
-133.818680  32.598020 -4224.000000
-133.814550  32.598030 -4014.000000
-133.810480  32.598020 -3958.000000
-133.806290  32.597880 -4014.000000
-133.802100  32.597870 -4020.000000
-133.797890  32.597940 -3999.000000
-133.793690  32.597950 -4000.000000
-133.789600  32.597970 -3957.000000
-133.785530  32.597970 -3922.000000
-133.781270  32.597820 -3991.000000
-133.777040  32.597690 -4046.000000
-133.772930  32.597990 -4043.000000
-133.768860  32.597930 -4040.000000
-133.764620  32.597800 -4020.000000
-133.760300  32.598160 -4009.000000
-133.756560  32.598270 -4062.000000
-133.752530  32.598990 -4119.000000
-133.749250  32.599190 -4170.000000
-133.906350  32.591890 -4757.000000
-133.901870  32.592910 -4664.000000
-133.897580  32.593250 -4654.000000
-133.893730  32.593470 -4647.000000
-133.889340  32.593680 -4588.000000
-133.885490  32.593590 -4569.000000
-133.881140  32.593760 -4549.000000
-133.877140  32.593600 -4514.000000
-133.872910  32.593830 -4591.000000
-133.868720  32.593830 -4615.000000
-133.864480  32.593670 -4595.000000
-133.860490  32.593770 -4605.000000
-133.856280  32.593760 -4641.000000
-133.852160  32.593760 -4647.000000
-133.847710  32.593590 -4599.000000
-133.843650  32.593810 -4605.000000
-133.839540  32.593760 -4603.000000
-133.835310  32.593830 -4587.000000
-133.831310  32.593710 -4555.000000
-133.827070  32.593740 -4476.000000
-133.822970  32.593650 -4349.000000
-133.818820  32.593760 -4144.000000
-133.814570  32.593770 -4096.000000
-133.810490  32.593770 -4110.000000
-133.806340  32.593710 -4123.000000
-133.802310  32.593810 -4110.000000
-133.797770  32.593740 -4142.000000
-133.793830  32.593760 -4094.000000
-133.789490  32.593890 -4059.000000
-133.785390  32.593610 -4053.000000
-133.781100  32.593740 -4116.000000
-133.777020  32.593760 -4076.000000
-133.772820  32.593830 -4080.000000
-133.768740  32.593680 -4087.000000
-133.764690  32.594180 -4041.000000
-133.760800  32.594480 -4066.000000
-133.757410  32.594890 -4126.000000
-133.910340  32.589140 -4772.000000
-133.906410  32.589040 -4770.000000
-133.902080  32.589560 -4726.000000
-133.898010  32.589590 -4713.000000
-133.894250  32.589710 -4703.000000
-133.889290  32.589710 -4614.000000
-133.885290  32.589840 -4620.000000
-133.881320  32.589940 -4581.000000
-133.877120  32.589560 -4575.000000
-133.872930  32.589640 -4606.000000
-133.868670  32.589600 -4520.000000
-133.864570  32.589590 -4483.000000
-133.860460  32.589520 -4536.000000
-133.856250  32.589500 -4625.000000
-133.851960  32.589630 -4649.000000
-133.847960  32.589510 -4628.000000
-133.843760  32.589610 -4615.000000
-133.839500  32.589650 -4605.000000
-133.835450  32.589520 -4595.000000
-133.831110  32.589770 -4488.000000
-133.827130  32.589560 -4430.000000
-133.822990  32.589700 -4321.000000
-133.819150  32.589740 -4240.000000
-133.814730  32.589630 -4221.000000
-133.810440  32.589600 -4218.000000
-133.806280  32.589670 -4215.000000
-133.802040  32.589430 -4275.000000
-133.798010  32.589510 -4257.000000
-133.793660  32.589700 -4209.000000
-133.789710  32.589570 -4169.000000
-133.785460  32.589630 -4139.000000
-133.781410  32.589360 -4180.000000
-133.777280  32.589480 -4155.000000
-133.772750  32.589780 -4156.000000
-133.769460  32.589960 -4154.000000
-133.765430  32.590500 -4143.000000
-133.930090  32.583890 -4611.000000
-133.926950  32.584160 -4678.000000
-133.923760  32.584460 -4733.000000
-133.918210  32.583640 -4708.000000
-133.914520  32.584000 -4705.000000
-133.909770  32.584730 -4729.000000
-133.905910  32.585360 -4780.000000
-133.902100  32.585390 -4803.000000
-133.897860  32.585430 -4806.000000
-133.893850  32.585430 -4788.000000
-133.889490  32.585510 -4738.000000
-133.885390  32.585470 -4723.000000
-133.881230  32.585440 -4617.000000
-133.877000  32.585380 -4496.000000
-133.872920  32.585300 -4471.000000
-133.868720  32.585370 -4399.000000
-133.864600  32.585440 -4427.000000
-133.860400  32.585530 -4501.000000
-133.856130  32.585510 -4552.000000
-133.851860  32.585540 -4616.000000
-133.847930  32.585400 -4611.000000
-133.843790  32.585330 -4596.000000
-133.839510  32.585480 -4587.000000
-133.835360  32.585490 -4590.000000
-133.831270  32.585330 -4529.000000
-133.827090  32.585430 -4479.000000
-133.822900  32.585340 -4461.000000
-133.818740  32.585320 -4383.000000
-133.814610  32.585470 -4345.000000
-133.810360  32.585330 -4347.000000
-133.806220  32.585480 -4321.000000
-133.802070  32.585440 -4305.000000
-133.797940  32.585620 -4307.000000
-133.793930  32.585370 -4291.000000
-133.789630  32.585680 -4250.000000
-133.785690  32.585590 -4242.000000
-133.781510  32.586010 -4235.000000
-133.777580  32.586730 -4171.000000
-133.772740  32.586780 -4222.000000
-133.770550  32.586730 -4233.000000
-133.930110  32.582020 -4655.000000
-133.927080  32.581580 -4702.000000
-133.923310  32.580720 -4717.000000
-133.918340  32.581250 -4715.000000
-133.914380  32.581210 -4698.000000
-133.910450  32.581090 -4724.000000
-133.906260  32.581280 -4780.000000
-133.902130  32.581170 -4796.000000
-133.897970  32.581190 -4791.000000
-133.893670  32.581240 -4744.000000
-133.889550  32.581190 -4683.000000
-133.885400  32.581210 -4629.000000
-133.881210  32.581210 -4521.000000
-133.877140  32.581140 -4453.000000
-133.872930  32.581200 -4466.000000
-133.868740  32.581340 -4439.000000
-133.864580  32.581300 -4450.000000
-133.860420  32.581160 -4471.000000
-133.856300  32.581140 -4463.000000
-133.852000  32.581100 -4510.000000
-133.847900  32.581270 -4557.000000
-133.843820  32.581220 -4588.000000
-133.839670  32.581220 -4592.000000
-133.835230  32.581350 -4605.000000
-133.831190  32.581220 -4591.000000
-133.827000  32.581300 -4557.000000
-133.822980  32.581230 -4530.000000
-133.818750  32.581260 -4487.000000
-133.814620  32.581280 -4459.000000
-133.810420  32.581250 -4425.000000
-133.806400  32.581480 -4377.000000
-133.802130  32.581250 -4356.000000
-133.798050  32.581270 -4349.000000
-133.793920  32.581320 -4354.000000
-133.789690  32.580930 -4348.000000
-133.785890  32.582060 -4342.000000
-133.781710  32.581590 -4346.000000
-133.926400  32.577620 -4709.000000
-133.922850  32.577060 -4718.000000
-133.918820  32.576650 -4694.000000
-133.914550  32.576840 -4771.000000
-133.910510  32.577100 -4804.000000
-133.906400  32.577040 -4811.000000
-133.902070  32.577130 -4813.000000
-133.897980  32.577070 -4812.000000
-133.893610  32.577000 -4756.000000
-133.889600  32.577070 -4696.000000
-133.885400  32.577080 -4655.000000
-133.881170  32.577270 -4563.000000
-133.877000  32.577180 -4487.000000
-133.873110  32.577190 -4541.000000
-133.868770  32.577150 -4543.000000
-133.864530  32.577070 -4518.000000
-133.860420  32.577070 -4569.000000
-133.856190  32.576960 -4519.000000
-133.852040  32.577110 -4482.000000
-133.848040  32.577080 -4525.000000
-133.843680  32.577100 -4610.000000
-133.839980  32.576910 -4610.000000
-133.835220  32.577200 -4607.000000
-133.831140  32.577170 -4623.000000
-133.827220  32.577070 -4673.000000
-133.822960  32.577080 -4653.000000
-133.818830  32.577000 -4618.000000
-133.814680  32.577280 -4579.000000
-133.810780  32.577580 -4545.000000
-133.807010  32.578480 -4459.000000
-133.801290  32.577940 -4444.000000
-133.798120  32.577950 -4410.000000
-133.793140  32.577740 -4399.000000
-133.789820  32.577790 -4373.000000
-133.787130  32.578700 -4359.000000
-133.925480  32.574340 -4734.000000
-133.922530  32.573240 -4763.000000
-133.918740  32.572930 -4776.000000
-133.914410  32.573050 -4801.000000
-133.910350  32.572930 -4808.000000
-133.906290  32.572840 -4813.000000
-133.902060  32.572960 -4816.000000
-133.897890  32.572890 -4816.000000
-133.893750  32.572900 -4780.000000
-133.889610  32.572960 -4725.000000
-133.885430  32.572860 -4691.000000
-133.881650  32.572860 -4631.000000
-133.877020  32.572820 -4539.000000
-133.872960  32.572990 -4600.000000
-133.868780  32.572890 -4608.000000
-133.864630  32.572920 -4596.000000
-133.860420  32.573010 -4591.000000
-133.856190  32.572990 -4534.000000
-133.852060  32.572930 -4504.000000
-133.848030  32.573110 -4526.000000
-133.843610  32.573000 -4609.000000
-133.839570  32.572840 -4593.000000
-133.835430  32.572900 -4568.000000
-133.831260  32.572690 -4629.000000
-133.827270  32.573130 -4702.000000
-133.822670  32.572710 -4701.000000
-133.818880  32.572870 -4635.000000
-133.814940  32.573860 -4635.000000
-133.921730  32.569580 -4786.000000
-133.918790  32.568890 -4791.000000
-133.914600  32.568690 -4802.000000
-133.910220  32.568800 -4807.000000
-133.906200  32.568780 -4810.000000
-133.902170  32.568720 -4815.000000
-133.897940  32.568760 -4817.000000
-133.893710  32.568700 -4783.000000
-133.889650  32.568720 -4759.000000
-133.885400  32.568660 -4745.000000
-133.881580  32.568560 -4714.000000
-133.876950  32.568830 -4642.000000
-133.872860  32.568820 -4654.000000
-133.868840  32.568710 -4662.000000
-133.864530  32.568780 -4654.000000
-133.860600  32.568640 -4634.000000
-133.856030  32.568580 -4560.000000
-133.852000  32.568760 -4567.000000
-133.847990  32.568640 -4529.000000
-133.843720  32.568760 -4538.000000
-133.839780  32.569270 -4569.000000
-133.835730  32.569660 -4563.000000
-133.830950  32.568950 -4640.000000
-133.826640  32.568980 -4695.000000
-133.823160  32.569160 -4646.000000
-133.819480  32.570130 -4591.000000
-133.917890  32.565170 -4789.000000
-133.914460  32.564650 -4805.000000
-133.910380  32.564600 -4808.000000
-133.906350  32.564620 -4808.000000
-133.902100  32.564560 -4811.000000
-133.898050  32.564520 -4800.000000
-133.893700  32.564580 -4772.000000
-133.889620  32.564520 -4763.000000
-133.885330  32.564620 -4772.000000
-133.881290  32.564550 -4765.000000
-133.877260  32.564410 -4736.000000
-133.872850  32.564590 -4697.000000
-133.868530  32.564870 -4688.000000
-133.864860  32.564930 -4672.000000
-133.860470  32.564590 -4659.000000
-133.856200  32.564640 -4631.000000
-133.852190  32.564420 -4611.000000
-133.847740  32.564600 -4569.000000
-133.843760  32.564500 -4552.000000
-133.840770  32.564780 -4540.000000
-133.833790  32.564630 -4656.000000
-133.831960  32.565850 -4671.000000
-133.828630  32.566090 -4703.000000
-133.823860  32.565720 -4685.000000
-133.916970  32.562080 -4801.000000
-133.914240  32.560740 -4805.000000
-133.910430  32.560430 -4808.000000
-133.906160  32.560540 -4799.000000
-133.902000  32.560390 -4800.000000
-133.897850  32.560270 -4771.000000
-133.893800  32.560410 -4755.000000
-133.889560  32.560420 -4755.000000
-133.885440  32.560380 -4771.000000
-133.881190  32.560410 -4766.000000
-133.877090  32.560410 -4739.000000
-133.873040  32.560380 -4733.000000
-133.868840  32.560340 -4728.000000
-133.864800  32.560670 -4693.000000
-133.860070  32.560820 -4676.000000
-133.856660  32.561010 -4658.000000
-133.851970  32.560500 -4645.000000
-133.848430  32.560700 -4583.000000
-133.844310  32.561460 -4545.000000
-133.841090  32.562020 -4555.000000
-133.913240  32.557190 -4805.000000
-133.910400  32.556440 -4810.000000
-133.906090  32.556330 -4798.000000
-133.901980  32.556270 -4766.000000
-133.897900  32.556260 -4764.000000
-133.893800  32.556220 -4748.000000
-133.889530  32.556330 -4732.000000
-133.885510  32.556310 -4725.000000
-133.881240  32.556240 -4726.000000
-133.876990  32.556230 -4718.000000
-133.872910  32.556180 -4741.000000
-133.868690  32.556270 -4747.000000
-133.864760  32.556200 -4736.000000
-133.860810  32.555790 -4711.000000
-133.855900  32.556290 -4688.000000
-133.852040  32.556190 -4648.000000
-133.848950  32.555990 -4593.000000
-133.909370  32.552710 -4803.000000
-133.906280  32.552000 -4760.000000
-133.901970  32.552140 -4772.000000
-133.897940  32.552070 -4763.000000
-133.893790  32.551990 -4751.000000
-133.889720  32.552090 -4743.000000
-133.885340  32.552000 -4735.000000
-133.881280  32.552060 -4724.000000
-133.877020  32.552040 -4705.000000
-133.873010  32.552170 -4704.000000
-133.868920  32.552000 -4740.000000
-133.864940  32.551590 -4738.000000
-133.860100  32.551580 -4717.000000
-133.856170  32.551850 -4648.000000
-133.852520  32.552520 -4528.000000
-133.848730  32.553270 -4519.000000
-133.908460  32.549820 -4797.000000
-133.905800  32.548310 -4773.000000
-133.901980  32.547930 -4768.000000
-133.897840  32.548040 -4750.000000
-133.893630  32.547870 -4743.000000
-133.889610  32.547880 -4740.000000
-133.885500  32.547870 -4735.000000
-133.881380  32.548090 -4730.000000
-133.877120  32.548050 -4722.000000
-133.872900  32.548020 -4719.000000
-133.869330  32.548580 -4724.000000
-133.865070  32.548890 -4735.000000
-133.860290  32.548530 -4715.000000
-133.856950  32.547610 -4633.000000
-133.852940  32.549590 -4484.000000
-133.904750  32.545000 -4772.000000
-133.902000  32.543800 -4750.000000
-133.897810  32.543990 -4725.000000
-133.893800  32.543730 -4726.000000
-133.889570  32.543840 -4723.000000
-133.885640  32.543680 -4725.000000
-133.881090  32.544300 -4733.000000
-133.877620  32.543680 -4728.000000
-133.873610  32.544070 -4716.000000
-133.869740  32.544570 -4727.000000
-133.865040  32.544240 -4745.000000
-133.859290  32.544860 -4716.000000
-133.857320  32.545380 -4639.000000
-133.900850  32.540410 -4739.000000
-133.898010  32.539590 -4725.000000
-133.893870  32.539890 -4719.000000
-133.889770  32.540120 -4712.000000
-133.886210  32.541140 -4718.000000
-133.881060  32.541120 -4736.000000
-133.877970  32.541460 -4735.000000
-133.873390  32.540720 -4737.000000
-133.897560  32.536500 -4734.000000
-133.893800  32.535590 -4715.000000
-133.891210  32.536880 -4715.000000
-133.893400  32.531420 -4704.000000
-136.166740  31.408430 -4786.000000
-136.166660  31.408340 -4788.000000
-136.171350  31.405360 -4797.000000
-136.168470  31.405810 -4812.000000
-136.164530  31.405620 -4793.000000
-136.161360  31.405120 -4728.000000
-136.176250  31.401270 -4765.000000
-136.173120  31.401250 -4791.000000
-136.168610  31.402060 -4782.000000
-136.164480  31.402020 -4749.000000
-136.160490  31.402110 -4758.000000
-136.157600  31.400930 -4765.000000
-136.180660  31.397030 -4750.000000
-136.177120  31.397700 -4768.000000
-136.172890  31.397810 -4796.000000
-136.168870  31.397890 -4795.000000
-136.164610  31.397980 -4749.000000
-136.160520  31.397920 -4734.000000
-136.156370  31.397730 -4697.000000
-136.153650  31.396430 -4660.000000
-136.188180  31.392620 -4749.000000
-136.185440  31.393310 -4731.000000
-136.180830  31.393600 -4778.000000
-136.177180  31.393900 -4789.000000
-136.172880  31.393660 -4766.000000
-136.168760  31.393770 -4753.000000
-136.164600  31.393830 -4719.000000
-136.160370  31.393650 -4673.000000
-136.156370  31.393740 -4648.000000
-136.152570  31.393180 -4632.000000
-136.149800  31.391810 -4629.000000
-136.193350  31.388570 -4790.000000
-136.189080  31.389000 -4717.000000
-136.185470  31.389740 -4737.000000
-136.181050  31.389860 -4786.000000
-136.177170  31.389590 -4779.000000
-136.172880  31.389630 -4755.000000
-136.168730  31.389520 -4693.000000
-136.164530  31.389460 -4633.000000
-136.160490  31.389540 -4629.000000
-136.156290  31.389560 -4597.000000
-136.152240  31.389650 -4636.000000
-136.148640  31.388900 -4689.000000
-136.201030  31.383930 -4822.000000
-136.197230  31.384380 -4813.000000
-136.193600  31.385520 -4740.000000
-136.189390  31.385430 -4712.000000
-136.185540  31.385360 -4720.000000
-136.181130  31.385530 -4752.000000
-136.177010  31.385440 -4742.000000
-136.173220  31.385350 -4723.000000
-136.168750  31.385390 -4638.000000
-136.164680  31.385360 -4611.000000
-136.160420  31.385420 -4588.000000
-136.156210  31.385430 -4591.000000
-136.151810  31.385550 -4680.000000
-136.147840  31.385320 -4678.000000
-136.144920  31.384590 -4688.000000
-136.205340  31.381120 -4783.000000
-136.202300  31.381310 -4724.000000
-136.197850  31.381140 -4729.000000
-136.193720  31.381170 -4729.000000
-136.189680  31.381300 -4749.000000
-136.185510  31.381160 -4692.000000
-136.181160  31.380990 -4686.000000
-136.177130  31.381290 -4707.000000
-136.172880  31.381290 -4669.000000
-136.168820  31.381300 -4650.000000
-136.164490  31.381240 -4612.000000
-136.160490  31.381180 -4618.000000
-136.156200  31.381190 -4671.000000
-136.152080  31.381230 -4669.000000
-136.147720  31.381260 -4662.000000
-136.143750  31.381290 -4716.000000
-136.140560  31.380170 -4828.000000
-136.136080  31.380800 -4808.000000
-136.208540  31.375390 -4729.000000
-136.205940  31.376200 -4715.000000
-136.201950  31.376940 -4704.000000
-136.197960  31.377050 -4712.000000
-136.193650  31.377060 -4716.000000
-136.189530  31.377120 -4732.000000
-136.185320  31.377120 -4673.000000
-136.181200  31.377090 -4659.000000
-136.177100  31.377100 -4679.000000
-136.172880  31.377130 -4663.000000
-136.168740  31.377060 -4642.000000
-136.164550  31.376980 -4612.000000
-136.160440  31.377090 -4659.000000
-136.156280  31.377070 -4671.000000
-136.152100  31.377070 -4670.000000
-136.147750  31.377320 -4697.000000
-136.143580  31.377070 -4758.000000
-136.139670  31.376790 -4804.000000
-136.136990  31.375530 -4782.000000
-136.226030  31.371210 -4786.000000
-136.222020  31.372070 -4708.000000
-136.219050  31.372120 -4757.000000
-136.214540  31.371540 -4751.000000
-136.210050  31.372520 -4729.000000
-136.206350  31.372780 -4717.000000
-136.202000  31.373020 -4708.000000
-136.198040  31.372850 -4692.000000
-136.193730  31.372880 -4686.000000
-136.189650  31.372910 -4681.000000
-136.185350  31.372950 -4631.000000
-136.181220  31.372870 -4638.000000
-136.176950  31.372490 -4604.000000
-136.173210  31.372550 -4606.000000
-136.168660  31.372850 -4587.000000
-136.164570  31.372830 -4644.000000
-136.160430  31.372960 -4656.000000
-136.156240  31.372880 -4677.000000
-136.152210  31.372960 -4681.000000
-136.148040  31.372840 -4714.000000
-136.143630  31.373050 -4738.000000
-136.139570  31.372860 -4752.000000
-136.135800  31.372550 -4729.000000
-136.132980  31.371220 -4720.000000
-136.129080  31.372410 -4699.000000
-136.124680  31.370910 -4579.000000
-136.233860  31.366820 -4786.000000
-136.230670  31.367570 -4777.000000
-136.226580  31.368590 -4766.000000
-136.222690  31.368490 -4757.000000
-136.218490  31.368900 -4770.000000
-136.214350  31.368520 -4744.000000
-136.210430  31.368720 -4731.000000
-136.206120  31.368790 -4727.000000
-136.202250  31.368550 -4699.000000
-136.197800  31.368890 -4666.000000
-136.193770  31.368670 -4663.000000
-136.189570  31.368730 -4656.000000
-136.185440  31.368540 -4620.000000
-136.180970  31.368470 -4559.000000
-136.177180  31.368930 -4587.000000
-136.172690  31.368670 -4613.000000
-136.168830  31.368640 -4632.000000
-136.164510  31.368630 -4664.000000
-136.160500  31.368650 -4679.000000
-136.156250  31.368940 -4692.000000
-136.152010  31.368700 -4692.000000
-136.147710  31.368680 -4734.000000
-136.143660  31.368600 -4738.000000
-136.139600  31.368760 -4735.000000
-136.135520  31.368570 -4722.000000
-136.131980  31.368340 -4684.000000
-136.126010  31.369090 -4601.000000
-136.121700  31.367740 -4560.000000
-136.120420  31.368730 -4525.000000
-136.234630  31.364360 -4763.000000
-136.231060  31.364240 -4758.000000
-136.226780  31.364410 -4739.000000
-136.223100  31.364570 -4766.000000
-136.218710  31.364490 -4743.000000
-136.214440  31.364610 -4739.000000
-136.210360  31.364670 -4744.000000
-136.206280  31.364560 -4719.000000
-136.202150  31.364610 -4676.000000
-136.198020  31.364490 -4651.000000
-136.193710  31.364600 -4655.000000
-136.189480  31.364400 -4639.000000
-136.185480  31.364710 -4591.000000
-136.181230  31.364520 -4570.000000
-136.177120  31.364710 -4607.000000
-136.172830  31.364430 -4615.000000
-136.168840  31.364430 -4644.000000
-136.164550  31.364430 -4654.000000
-136.160430  31.364630 -4672.000000
-136.156230  31.364550 -4685.000000
-136.152160  31.364820 -4705.000000
-136.147810  31.364520 -4733.000000
-136.143720  31.364570 -4732.000000
-136.139830  31.364600 -4709.000000
-136.135690  31.365600 -4680.000000
-136.131280  31.363900 -4643.000000
-136.128420  31.365030 -4623.000000
-136.123360  31.365060 -4572.000000
-136.118650  31.364960 -4522.000000
-136.114040  31.363430 -4547.000000
-136.238010  31.359320 -4723.000000
-136.235090  31.360100 -4743.000000
-136.231030  31.360360 -4763.000000
-136.227170  31.360440 -4751.000000
-136.222890  31.360420 -4743.000000
-136.218800  31.360510 -4739.000000
-136.214640  31.360440 -4746.000000
-136.210470  31.360380 -4725.000000
-136.206220  31.360500 -4699.000000
-136.202060  31.360280 -4673.000000
-136.197890  31.360140 -4655.000000
-136.193950  31.360390 -4638.000000
-136.189570  31.360180 -4581.000000
-136.185360  31.360320 -4558.000000
-136.181370  31.360260 -4594.000000
-136.177000  31.360430 -4628.000000
-136.173020  31.360160 -4638.000000
-136.168650  31.360340 -4651.000000
-136.164920  31.360140 -4643.000000
-136.160380  31.360430 -4668.000000
-136.156250  31.360510 -4680.000000
-136.152010  31.360280 -4720.000000
-136.147850  31.360450 -4726.000000
-136.143910  31.360420 -4703.000000
-136.140240  31.361170 -4677.000000
-136.135580  31.361090 -4649.000000
-136.132330  31.361170 -4618.000000
-136.127190  31.360250 -4560.000000
-136.123010  31.360780 -4525.000000
-136.119500  31.359680 -4543.000000
-136.114260  31.359230 -4463.000000
-136.110580  31.360530 -4456.000000
-136.253410  31.354550 -4662.000000
-136.247520  31.354330 -4690.000000
-136.243290  31.355500 -4696.000000
-136.239320  31.356130 -4715.000000
-136.235320  31.356360 -4748.000000
-136.231300  31.356320 -4767.000000
-136.227040  31.356160 -4737.000000
-136.222750  31.356290 -4742.000000
-136.218810  31.356280 -4750.000000
-136.214380  31.356060 -4704.000000
-136.210360  31.356310 -4705.000000
-136.206060  31.356030 -4623.000000
-136.202000  31.356020 -4640.000000
-136.197920  31.356450 -4629.000000
-136.193530  31.356170 -4590.000000
-136.189660  31.356160 -4594.000000
-136.185440  31.356270 -4619.000000
-136.181300  31.356320 -4641.000000
-136.177070  31.356280 -4653.000000
-136.172970  31.356210 -4667.000000
-136.168710  31.356280 -4666.000000
-136.164530  31.356290 -4662.000000
-136.160640  31.356170 -4689.000000
-136.156280  31.356330 -4705.000000
-136.152230  31.356470 -4709.000000
-136.148250  31.356870 -4713.000000
-136.144850  31.356850 -4668.000000
-136.139960  31.356050 -4633.000000
-136.135440  31.355890 -4600.000000
-136.131120  31.355880 -4552.000000
-136.127120  31.356250 -4535.000000
-136.122620  31.356760 -4553.000000
-136.118470  31.356330 -4466.000000
-136.114800  31.355180 -4444.000000
-136.110370  31.356310 -4465.000000
-136.107390  31.357560 -4476.000000
-136.102860  31.354310 -4490.000000
-136.263300  31.350130 -4567.000000
-136.259500  31.350750 -4623.000000
-136.257070  31.350280 -4645.000000
-136.251170  31.351250 -4677.000000
-136.247760  31.352180 -4693.000000
-136.243660  31.352140 -4707.000000
-136.239590  31.351850 -4714.000000
-136.235410  31.352050 -4729.000000
-136.231120  31.352100 -4747.000000
-136.227190  31.352030 -4746.000000
-136.222940  31.352070 -4727.000000
-136.218650  31.352130 -4715.000000
-136.214580  31.351710 -4695.000000
-136.210490  31.351980 -4658.000000
-136.205980  31.351960 -4627.000000
-136.202010  31.352180 -4623.000000
-136.198060  31.352110 -4609.000000
-136.193520  31.351910 -4600.000000
-136.189650  31.352010 -4657.000000
-136.185460  31.352120 -4667.000000
-136.181200  31.352160 -4660.000000
-136.177140  31.352070 -4671.000000
-136.172890  31.352070 -4674.000000
-136.168800  31.352000 -4651.000000
-136.164540  31.352170 -4653.000000
-136.160890  31.352520 -4674.000000
-136.156800  31.352220 -4704.000000
-136.152040  31.352420 -4693.000000
-136.148370  31.351710 -4663.000000
-136.143970  31.352000 -4634.000000
-136.139700  31.351920 -4605.000000
-136.135420  31.351860 -4549.000000
-136.131640  31.352110 -4539.000000
-136.127750  31.352060 -4518.000000
-136.123350  31.351560 -4491.000000
-136.118510  31.352720 -4458.000000
-136.115320  31.350930 -4485.000000
-136.110350  31.352030 -4520.000000
-136.106100  31.353330 -4519.000000
-136.101870  31.350350 -4527.000000
-136.099940  31.350570 -4527.000000
-136.267540  31.346190 -4573.000000
-136.263330  31.346710 -4584.000000
-136.260500  31.347530 -4596.000000
-136.256030  31.347900 -4645.000000
-136.252080  31.348040 -4669.000000
-136.247920  31.347810 -4648.000000
-136.243670  31.347930 -4683.000000
-136.239540  31.347890 -4707.000000
-136.235400  31.347840 -4739.000000
-136.231470  31.348010 -4747.000000
-136.227160  31.347870 -4698.000000
-136.222980  31.347900 -4699.000000
-136.218400  31.347790 -4698.000000
-136.214650  31.347830 -4662.000000
-136.210290  31.347910 -4640.000000
-136.206050  31.348130 -4620.000000
-136.202100  31.347950 -4627.000000
-136.197890  31.347860 -4642.000000
-136.193750  31.347900 -4665.000000
-136.189610  31.347880 -4677.000000
-136.185420  31.347940 -4650.000000
-136.181180  31.347940 -4682.000000
-136.177000  31.347930 -4704.000000
-136.172990  31.347950 -4677.000000
-136.168810  31.348140 -4650.000000
-136.165020  31.348240 -4670.000000
-136.160730  31.348130 -4690.000000
-136.156290  31.347890 -4675.000000
-136.152070  31.347640 -4662.000000
-136.147950  31.347720 -4640.000000
-136.143770  31.347620 -4603.000000
-136.139750  31.347660 -4550.000000
-136.135600  31.347780 -4527.000000
-136.131330  31.347960 -4485.000000
-136.126760  31.348990 -4482.000000
-136.122370  31.347980 -4429.000000
-136.118920  31.347940 -4453.000000
-136.114540  31.347490 -4548.000000
-136.110340  31.348350 -4582.000000
-136.106200  31.349270 -4553.000000
-136.101600  31.346050 -4551.000000
-136.098760  31.346240 -4545.000000
-136.271750  31.342270 -4547.000000
-136.268410  31.343700 -4559.000000
-136.264550  31.343620 -4588.000000
-136.260500  31.343730 -4620.000000
-136.256330  31.343780 -4617.000000
-136.251920  31.343740 -4618.000000
-136.247860  31.343700 -4617.000000
-136.243480  31.343570 -4661.000000
-136.239590  31.343760 -4684.000000
-136.235300  31.343700 -4693.000000
-136.231280  31.343560 -4702.000000
-136.227190  31.343680 -4698.000000
-136.222870  31.343790 -4669.000000
-136.218350  31.343660 -4667.000000
-136.214690  31.343640 -4648.000000
-136.210330  31.343860 -4614.000000
-136.206130  31.343680 -4628.000000
-136.202000  31.343800 -4649.000000
-136.197940  31.343750 -4691.000000
-136.193670  31.343860 -4662.000000
-136.189610  31.343780 -4628.000000
-136.185460  31.343670 -4656.000000
-136.181290  31.343760 -4695.000000
-136.177120  31.343730 -4712.000000
-136.173020  31.343730 -4701.000000
-136.168660  31.343780 -4684.000000
-136.164830  31.343800 -4670.000000
-136.160370  31.343850 -4661.000000
-136.156370  31.343610 -4654.000000
-136.152120  31.343730 -4629.000000
-136.147580  31.343180 -4600.000000
-136.144300  31.343330 -4565.000000
-136.139850  31.343520 -4507.000000
-136.135800  31.343470 -4455.000000
-136.131270  31.344100 -4392.000000
-136.126780  31.343140 -4419.000000
-136.123230  31.343340 -4486.000000
-136.118810  31.343690 -4504.000000
-136.114480  31.342410 -4609.000000
-136.110250  31.342620 -4614.000000
-136.106280  31.342680 -4593.000000
-136.102350  31.342860 -4575.000000
-136.099260  31.343060 -4561.000000
-136.280460  31.338190 -4534.000000
-136.277050  31.339000 -4498.000000
-136.272810  31.339560 -4500.000000
-136.268760  31.339540 -4533.000000
-136.264630  31.339560 -4572.000000
-136.260360  31.339580 -4599.000000
-136.256200  31.339630 -4560.000000
-136.252120  31.339410 -4592.000000
-136.247980  31.339610 -4612.000000
-136.243780  31.339600 -4626.000000
-136.239550  31.339580 -4621.000000
-136.235330  31.339280 -4638.000000
-136.231460  31.339690 -4683.000000
-136.227010  31.339480 -4662.000000
-136.222600  31.339400 -4631.000000
-136.218820  31.339470 -4625.000000
-136.214550  31.339480 -4586.000000
-136.210430  31.339540 -4596.000000
-136.206260  31.339560 -4633.000000
-136.202110  31.339580 -4661.000000
-136.197840  31.339640 -4651.000000
-136.193830  31.339520 -4637.000000
-136.189720  31.339670 -4621.000000
-136.185260  31.339470 -4646.000000
-136.181780  31.339940 -4656.000000
-136.176960  31.339820 -4678.000000
-136.172790  31.339590 -4681.000000
-136.169010  31.339050 -4648.000000
-136.164620  31.338960 -4652.000000
-136.160400  31.339080 -4634.000000
-136.156120  31.339210 -4598.000000
-136.151990  31.339350 -4578.000000
-136.147490  31.339770 -4524.000000
-136.144050  31.339680 -4482.000000
-136.139730  31.339230 -4426.000000
-136.135380  31.339360 -4397.000000
-136.131080  31.339460 -4428.000000
-136.127260  31.339540 -4500.000000
-136.122900  31.338830 -4589.000000
-136.118790  31.338890 -4597.000000
-136.114550  31.338950 -4618.000000
-136.110380  31.339020 -4618.000000
-136.106300  31.339060 -4607.000000
-136.102120  31.339120 -4611.000000
-136.099550  31.339770 -4579.000000
-136.292380  31.333580 -4565.000000
-136.289020  31.334090 -4576.000000
-136.284880  31.334750 -4548.000000
-136.280910  31.334950 -4503.000000
-136.277000  31.335430 -4498.000000
-136.272760  31.335410 -4481.000000
-136.268580  31.335370 -4528.000000
-136.264520  31.335480 -4539.000000
-136.260560  31.335330 -4544.000000
-136.256160  31.335470 -4561.000000
-136.251960  31.335360 -4594.000000
-136.247730  31.335180 -4603.000000
-136.243840  31.335220 -4619.000000
-136.239390  31.335230 -4638.000000
-136.235400  31.335510 -4656.000000
-136.231110  31.335300 -4621.000000
-136.227060  31.335490 -4614.000000
-136.222960  31.335370 -4604.000000
-136.218660  31.335340 -4597.000000
-136.214530  31.335450 -4604.000000
-136.210430  31.335360 -4621.000000
-136.206290  31.335390 -4632.000000
-136.202080  31.335440 -4632.000000
-136.197900  31.335430 -4643.000000
-136.193700  31.335460 -4659.000000
-136.189760  31.335300 -4644.000000
-136.185650  31.335710 -4647.000000
-136.181310  31.335530 -4664.000000
-136.177140  31.335490 -4693.000000
-136.172590  31.335570 -4679.000000
-136.168750  31.335470 -4646.000000
-136.164610  31.335490 -4645.000000
-136.160340  31.335510 -4571.000000
-136.156230  31.335500 -4529.000000
-136.152030  31.335560 -4507.000000
-136.147900  31.335580 -4471.000000
-136.144510  31.335170 -4440.000000
-136.139590  31.335620 -4426.000000
-136.135320  31.335630 -4462.000000
-136.131360  31.335080 -4534.000000
-136.127060  31.335110 -4571.000000
-136.122910  31.335110 -4585.000000
-136.118780  31.335150 -4589.000000
-136.114610  31.335190 -4622.000000
-136.110400  31.335230 -4649.000000
-136.106380  31.335240 -4658.000000
-136.102800  31.335670 -4661.000000
-136.099510  31.336720 -4645.000000
-136.296450  31.330030 -4555.000000
-136.293520  31.330460 -4585.000000
-136.289800  31.331180 -4585.000000
-136.285460  31.331130 -4524.000000
-136.281260  31.331220 -4498.000000
-136.277060  31.331190 -4494.000000
-136.272990  31.331300 -4495.000000
-136.268690  31.331150 -4487.000000
-136.264540  31.331240 -4518.000000
-136.260340  31.331290 -4543.000000
-136.256250  31.331230 -4573.000000
-136.251950  31.331040 -4596.000000
-136.247730  31.331350 -4597.000000
-136.243910  31.331500 -4637.000000
-136.239520  31.331110 -4655.000000
-136.235500  31.331100 -4638.000000
-136.231070  31.331250 -4581.000000
-136.227060  31.331270 -4584.000000
-136.222900  31.331210 -4577.000000
-136.218800  31.331270 -4597.000000
-136.214620  31.331220 -4583.000000
-136.210320  31.331270 -4607.000000
-136.206480  31.331480 -4613.000000
-136.202100  31.331260 -4637.000000
-136.197880  31.331490 -4667.000000
-136.193810  31.331150 -4673.000000
-136.190150  31.331330 -4658.000000
-136.185400  31.331280 -4680.000000
-136.181360  31.331200 -4696.000000
-136.176520  31.330950 -4721.000000
-136.172260  31.330690 -4688.000000
-136.168920  31.330860 -4636.000000
-136.164580  31.331160 -4558.000000
-136.160430  31.331160 -4508.000000
-136.156350  31.331020 -4506.000000
-136.152090  31.330890 -4465.000000
-136.148110  31.331280 -4460.000000
-136.143780  31.331190 -4520.000000
-136.140140  31.330910 -4533.000000
-136.135530  31.331580 -4544.000000
-136.131300  31.331700 -4551.000000
-136.127020  31.331810 -4566.000000
-136.122950  31.331820 -4578.000000
-136.118740  31.331930 -4598.000000
-136.114590  31.331990 -4626.000000
-136.110530  31.331990 -4658.000000
-136.106820  31.332160 -4664.000000
-136.102020  31.333090 -4656.000000
-136.305130  31.325380 -4583.000000
-136.302260  31.326160 -4553.000000
-136.297650  31.326910 -4556.000000
-136.293870  31.327030 -4579.000000
-136.289480  31.327120 -4544.000000
-136.285390  31.327030 -4539.000000
-136.281090  31.327210 -4521.000000
-136.277220  31.326970 -4533.000000
-136.272990  31.327080 -4542.000000
-136.268870  31.327080 -4539.000000
-136.264650  31.327050 -4538.000000
-136.260390  31.327150 -4526.000000
-136.256000  31.326950 -4556.000000
-136.252010  31.327240 -4554.000000
-136.247950  31.326970 -4545.000000
-136.243450  31.327060 -4558.000000
-136.239560  31.327050 -4610.000000
-136.235450  31.327050 -4629.000000
-136.231210  31.327060 -4599.000000
-136.226940  31.327090 -4593.000000
-136.222880  31.327080 -4620.000000
-136.218740  31.327030 -4593.000000
-136.214590  31.327130 -4599.000000
-136.210470  31.327030 -4595.000000
-136.206400  31.327020 -4546.000000
-136.202260  31.327130 -4603.000000
-136.197600  31.327130 -4653.000000
-136.193990  31.327220 -4637.000000
-136.189810  31.327090 -4598.000000
-136.185170  31.326970 -4698.000000
-136.181540  31.326640 -4735.000000
-136.176650  31.327440 -4717.000000
-136.172580  31.327100 -4661.000000
-136.168710  31.327150 -4566.000000
-136.164760  31.327030 -4487.000000
-136.160440  31.327340 -4439.000000
-136.156210  31.326880 -4419.000000
-136.152150  31.326760 -4440.000000
-136.147930  31.327050 -4527.000000
-136.143780  31.327060 -4556.000000
-136.139710  31.327110 -4559.000000
-136.135970  31.326670 -4560.000000
-136.131310  31.326960 -4566.000000
-136.127200  31.326620 -4585.000000
-136.123060  31.326120 -4599.000000
-136.119040  31.326360 -4622.000000
-136.114770  31.326170 -4646.000000
-136.110410  31.325690 -4673.000000
-136.107040  31.327190 -4666.000000
-136.102720  31.326990 -4636.000000
-136.309750  31.321450 -4536.000000
-136.306170  31.322730 -4559.000000
-136.302100  31.322780 -4538.000000
-136.297970  31.323000 -4556.000000
-136.293720  31.322820 -4546.000000
-136.289640  31.323030 -4541.000000
-136.285520  31.322830 -4536.000000
-136.281250  31.322920 -4532.000000
-136.277030  31.323040 -4547.000000
-136.272930  31.322890 -4557.000000
-136.268680  31.322960 -4544.000000
-136.264270  31.322820 -4516.000000
-136.260270  31.322750 -4497.000000
-136.256070  31.322740 -4520.000000
-136.252170  31.322470 -4538.000000
-136.247900  31.322730 -4555.000000
-136.243610  31.322770 -4578.000000
-136.239570  31.322970 -4610.000000
-136.235400  31.322880 -4608.000000
-136.231280  31.322820 -4555.000000
-136.227060  31.322780 -4579.000000
-136.222910  31.322930 -4598.000000
-136.218690  31.322880 -4601.000000
-136.214530  31.322950 -4587.000000
-136.210430  31.322950 -4540.000000
-136.206310  31.322920 -4590.000000
-136.202590  31.322890 -4621.000000
-136.197650  31.323240 -4630.000000
-136.193820  31.322980 -4616.000000
-136.189550  31.323120 -4702.000000
-136.185410  31.322660 -4737.000000
-136.181030  31.322560 -4747.000000
-136.177060  31.322530 -4701.000000
-136.172730  31.323060 -4583.000000
-136.168570  31.323270 -4494.000000
-136.164470  31.323320 -4466.000000
-136.160440  31.322700 -4419.000000
-136.156650  31.322390 -4443.000000
-136.152130  31.322930 -4494.000000
-136.147990  31.323120 -4537.000000
-136.143800  31.323090 -4555.000000
-136.139580  31.323290 -4568.000000
-136.135720  31.323480 -4576.000000
-136.131380  31.323320 -4589.000000
-136.126990  31.323400 -4602.000000
-136.122800  31.323160 -4627.000000
-136.118650  31.322740 -4657.000000
-136.114840  31.323190 -4676.000000
-136.108850  31.323580 -4681.000000
-136.106290  31.323000 -4662.000000
-136.102970  31.322640 -4614.000000
-136.316930  31.316940 -4570.000000
-136.313960  31.317970 -4548.000000
-136.310420  31.318540 -4531.000000
-136.306370  31.318700 -4556.000000
-136.302170  31.318910 -4571.000000
-136.297860  31.318670 -4529.000000
-136.293760  31.318750 -4534.000000
-136.289690  31.318700 -4536.000000
-136.285310  31.318830 -4532.000000
-136.281300  31.318770 -4545.000000
-136.277040  31.318790 -4542.000000
-136.272880  31.318750 -4529.000000
-136.268770  31.318790 -4531.000000
-136.264370  31.318900 -4515.000000
-136.260430  31.318500 -4518.000000
-136.256140  31.318730 -4543.000000
-136.252100  31.318810 -4592.000000
-136.247970  31.318730 -4604.000000
-136.243740  31.318750 -4626.000000
-136.239520  31.318790 -4621.000000
-136.235480  31.318770 -4609.000000
-136.231300  31.318770 -4582.000000
-136.226990  31.318780 -4574.000000
-136.222910  31.318770 -4584.000000
-136.218730  31.318770 -4593.000000
-136.214680  31.318790 -4548.000000
-136.210490  31.319460 -4522.000000
-136.206130  31.318960 -4598.000000
-136.202290  31.318560 -4628.000000
-136.197660  31.318550 -4612.000000
-136.193720  31.318700 -4657.000000
-136.189480  31.318810 -4722.000000
-136.185300  31.318300 -4743.000000
-136.181090  31.318790 -4732.000000
-136.176940  31.318820 -4602.000000
-136.173030  31.318650 -4487.000000
-136.168690  31.318750 -4425.000000
-136.164420  31.318800 -4384.000000
-136.160440  31.318800 -4419.000000
-136.156070  31.319290 -4474.000000
-136.152170  31.318850 -4525.000000
-136.147860  31.318550 -4558.000000
-136.144160  31.318840 -4570.000000
-136.139850  31.318670 -4573.000000
-136.135290  31.318970 -4578.000000
-136.131440  31.318830 -4596.000000
-136.127380  31.318330 -4639.000000
-136.123190  31.318660 -4678.000000
-136.118930  31.318550 -4679.000000
-136.114630  31.318880 -4669.000000
-136.108730  31.318440 -4671.000000
-136.105790  31.320080 -4642.000000
-136.103600  31.320290 -4587.000000
-136.325300  31.313760 -4653.000000
-136.322860  31.314200 -4627.000000
-136.318450  31.314010 -4559.000000
-136.314430  31.314590 -4557.000000
-136.310330  31.314590 -4575.000000
-136.306270  31.314780 -4587.000000
-136.302040  31.314530 -4512.000000
-136.298040  31.314530 -4511.000000
-136.293660  31.314610 -4516.000000
-136.289550  31.314640 -4508.000000
-136.285390  31.314650 -4537.000000
-136.281230  31.314530 -4550.000000
-136.277140  31.314620 -4543.000000
-136.272920  31.314530 -4534.000000
-136.268790  31.314650 -4527.000000
-136.264280  31.314450 -4538.000000
-136.260340  31.314560 -4557.000000
-136.256260  31.314600 -4593.000000
-136.252060  31.314600 -4583.000000
-136.247810  31.314460 -4596.000000
-136.243710  31.314600 -4614.000000
-136.239560  31.314560 -4630.000000
-136.235340  31.314670 -4608.000000
-136.231280  31.314580 -4571.000000
-136.227180  31.314570 -4580.000000
-136.222910  31.314590 -4585.000000
-136.218810  31.315100 -4572.000000
-136.214970  31.314820 -4523.000000
-136.210340  31.314450 -4564.000000
-136.206230  31.314070 -4604.000000
-136.202070  31.314560 -4619.000000
-136.198060  31.314790 -4652.000000
-136.193770  31.314620 -4706.000000
-136.189490  31.314320 -4725.000000
-136.185510  31.314510 -4723.000000
-136.181260  31.314600 -4704.000000
-136.176810  31.314640 -4500.000000
-136.172870  31.314620 -4386.000000
-136.168890  31.314500 -4361.000000
-136.164620  31.314600 -4389.000000
-136.160460  31.314710 -4431.000000
-136.156300  31.314630 -4496.000000
-136.152070  31.314700 -4551.000000
-136.147910  31.314700 -4608.000000
-136.144030  31.314760 -4627.000000
-136.139730  31.314950 -4587.000000
-136.135650  31.315240 -4583.000000
-136.131250  31.314740 -4624.000000
-136.127030  31.314510 -4676.000000
-136.123060  31.314220 -4685.000000
-136.118660  31.314600 -4682.000000
-136.114690  31.314000 -4659.000000
-136.110190  31.313650 -4589.000000
-136.106410  31.315030 -4622.000000
-136.103720  31.314900 -4619.000000
-136.329480  31.308430 -4587.000000
-136.326520  31.309830 -4605.000000
-136.322720  31.310410 -4578.000000
-136.318700  31.310410 -4555.000000
-136.314660  31.310390 -4564.000000
-136.310490  31.310400 -4575.000000
-136.306110  31.310410 -4513.000000
-136.301990  31.310490 -4485.000000
-136.297870  31.310370 -4488.000000
-136.293780  31.310360 -4507.000000
-136.289510  31.310460 -4518.000000
-136.285400  31.310410 -4536.000000
-136.281310  31.310350 -4539.000000
-136.277080  31.310490 -4541.000000
-136.272920  31.310380 -4534.000000
-136.268750  31.310300 -4528.000000
-136.264500  31.310360 -4560.000000
-136.260490  31.310310 -4600.000000
-136.256250  31.310440 -4616.000000
-136.252170  31.310350 -4614.000000
-136.247860  31.310510 -4602.000000
-136.243820  31.310330 -4601.000000
-136.239590  31.310460 -4588.000000
-136.235480  31.310360 -4565.000000
-136.231170  31.310460 -4587.000000
-136.227140  31.310470 -4596.000000
-136.223170  31.310920 -4581.000000
-136.218640  31.310520 -4524.000000
-136.214430  31.310400 -4540.000000
-136.210630  31.310670 -4568.000000
